ply
format ascii 1.0
element vertex 373
property float x
property float y
property float z
property uchar red
property uchar green
property uchar blue
end_header
-0.076190 -0.072589 0.314221 255 255 255
-0.076603 -0.067589 0.314221 255 255 255
-0.076747 -0.067589 0.313629 255 255 255
-0.076747 -0.072589 0.311715 255 255 255
-0.076747 -0.072589 0.314778 255 255 255
-0.076747 -0.067589 0.314365 255 255 255
-0.076090 -0.062589 0.314221 255 255 255
-0.076747 -0.062589 0.311197 255 255 255
-0.076747 -0.062589 0.314878 255 255 255
-0.076070 -0.057589 0.314221 255 255 255
-0.076747 -0.057589 0.311093 255 255 255
-0.076747 -0.057589 0.314898 255 255 255
-0.071747 -0.052885 0.314221 255 255 255
-0.071747 -0.052589 0.312962 255 255 255
-0.076747 -0.052589 0.312904 255 255 255
-0.076747 -0.052589 0.314530 255 255 255
-0.071747 -0.053468 0.319221 255 255 255
-0.072625 -0.052589 0.319221 255 255 255
-0.071747 -0.052589 0.320100 255 255 255
-0.076747 -0.047589 0.313468 255 255 255
-0.071747 -0.047589 0.311393 255 255 255
-0.071747 -0.047589 0.314629 255 255 255
-0.076747 -0.048509 0.319221 255 255 255
-0.075827 -0.047589 0.319221 255 255 255
-0.071747 -0.051711 0.319221 255 255 255
-0.076747 -0.047589 0.320141 255 255 255
-0.071797 -0.042589 0.314221 255 255 255
-0.076747 -0.047408 0.314221 255 255 255
-0.071747 -0.042589 0.314018 255 255 255
-0.076747 -0.046670 0.319221 255 255 255
-0.071747 -0.042922 0.319221 255 255 255
-0.072079 -0.042589 0.319221 255 255 255
-0.071747 -0.042589 0.319554 255 255 255
-0.071747 -0.042539 0.314221 255 255 255
-0.071747 -0.042257 0.319221 255 255 255
-0.067099 -0.067589 0.314221 255 255 255
-0.066913 -0.072589 0.314221 255 255 255
-0.066747 -0.072589 0.313533 255 255 255
-0.066747 -0.067589 0.312704 255 255 255
-0.066747 -0.067589 0.314574 255 255 255
-0.066747 -0.072202 0.319221 255 255 255
-0.067134 -0.072589 0.319221 255 255 255
-0.066747 -0.072589 0.319609 255 255 255
-0.066747 -0.063717 0.314221 255 255 255
-0.066747 -0.062589 0.314833 255 255 255
-0.067431 -0.062589 0.319221 255 255 255
-0.066747 -0.063274 0.319221 255 255 255
-0.066747 -0.062589 0.319906 255 255 255
-0.066964 -0.057589 0.314221 255 255 255
-0.066747 -0.060955 0.314221 255 255 255
-0.066747 -0.057589 0.313129 255 255 255
-0.067605 -0.057589 0.319221 255 255 255
-0.066747 -0.057589 0.320079 255 255 255
-0.066747 -0.052589 0.309867 255 255 255
-0.066747 -0.052589 0.319970 255 255 255
-0.066747 -0.047589 0.310680 255 255 255
-0.066747 -0.047589 0.314685 255 255 255
-0.066747 -0.051840 0.319221 255 255 255
-0.066747 -0.042589 0.309736 255 255 255
-0.071414 -0.042589 0.319221 255 255 255
-0.066747 -0.042589 0.314855 255 255 255
-0.066747 -0.041955 0.314221 255 255 255
-0.061747 -0.067761 0.314221 255 255 255
-0.062246 -0.067589 0.314221 255 255 255
-0.061747 -0.072589 0.309492 255 255 255
-0.061747 -0.067589 0.314434 255 255 255
-0.066360 -0.072589 0.319221 255 255 255
-0.061747 -0.072589 0.315178 255 255 255
-0.061747 -0.068386 0.319221 255 255 255
-0.062543 -0.067589 0.319221 255 255 255
-0.061747 -0.067589 0.320018 255 255 255
-0.063342 -0.065942 0.314753 255 255 255
-0.061747 -0.062589 0.317073 255 255 255
-0.061747 -0.062589 0.319706 255 255 255
-0.061747 -0.059491 0.314221 255 255 255
-0.061747 -0.057589 0.310733 255 255 255
-0.061747 -0.062104 0.319221 255 255 255
-0.065889 -0.057589 0.319221 255 255 255
-0.061747 -0.057589 0.314624 255 255 255
-0.061747 -0.052846 0.314221 255 255 255
-0.061962 -0.052589 0.314221 255 255 255
-0.061747 -0.053224 0.319221 255 255 255
-0.061747 -0.052589 0.314379 255 255 255
-0.061747 -0.052589 0.319856 255 255 255
-0.061747 -0.051897 0.314221 255 255 255
-0.061747 -0.047589 0.312858 255 255 255
-0.062650 -0.047589 0.319221 255 255 255
-0.061747 -0.047589 0.320125 255 255 255
-0.061747 -0.047446 0.314221 255 255 255
-0.066113 -0.042589 0.314221 255 255 255
-0.061747 -0.046686 0.319221 255 255 255
-0.060790 -0.072589 0.314221 255 255 255
-0.060950 -0.067589 0.319221 255 255 255
-0.061262 -0.062589 0.319221 255 255 255
-0.061344 -0.057589 0.314221 255 255 255
-0.061549 -0.052589 0.314221 255 255 255
-0.056747 -0.052589 0.311911 255 255 255
-0.056747 -0.053107 0.314221 255 255 255
-0.061112 -0.052589 0.319221 255 255 255
-0.056747 -0.052589 0.314739 255 255 255
-0.056747 -0.047589 0.311206 255 255 255
-0.056747 -0.047589 0.314876 255 255 255
-0.060843 -0.047589 0.319221 255 255 255
-0.056747 -0.046934 0.314221 255 255 255
-0.056229 -0.052589 0.314221 255 255 255
-0.056092 -0.047589 0.314221 255 255 255
-0.041784 -0.042589 0.364221 255 255 255
-0.041747 -0.042627 0.364221 255 255 255
-0.041747 -0.042589 0.364069 255 255 255
-0.041747 -0.042589 0.364259 255 255 255
-0.041747 -0.042552 0.364221 255 255 255
-0.036810 -0.067589 0.264221 255 255 255
-0.036747 -0.067653 0.264221 255 255 255
-0.036747 -0.067589 0.263964 255 255 255
-0.036747 -0.067589 0.264285 255 255 255
-0.036747 -0.067526 0.264221 255 255 255
-0.036786 -0.057589 0.264221 255 255 255
-0.036747 -0.057629 0.264221 255 255 255
-0.036747 -0.057589 0.264062 255 255 255
-0.037497 -0.057589 0.269221 255 255 255
-0.036747 -0.058340 0.269221 255 255 255
-0.036747 -0.057589 0.269972 255 255 255
-0.036898 -0.052589 0.264221 255 255 255
-0.036747 -0.052589 0.263374 255 255 255
-0.037633 -0.052589 0.269221 255 255 255
-0.036747 -0.052589 0.270108 255 255 255
-0.036747 -0.052358 0.264221 255 255 255
-0.036747 -0.051481 0.269221 255 255 255
-0.037284 -0.047589 0.364221 255 255 255
-0.036747 -0.048127 0.364221 255 255 255
-0.036747 -0.047589 0.361811 255 255 255
-0.036747 -0.047589 0.364759 255 255 255
-0.036747 -0.042589 0.363112 255 255 255
-0.037607 -0.042589 0.369221 255 255 255
-0.036747 -0.043450 0.369221 255 255 255
-0.036747 -0.042589 0.370082 255 255 255
-0.037652 -0.037589 0.364221 255 255 255
-0.036747 -0.037589 0.359801 255 255 255
-0.036747 -0.037589 0.365126 255 255 255
-0.036747 -0.041729 0.369221 255 255 255
-0.036534 -0.067589 0.264221 255 255 255
-0.032645 -0.067589 0.364221 255 255 255
-0.031747 -0.068487 0.364221 255 255 255
-0.031747 -0.067589 0.359843 255 255 255
-0.031747 -0.067589 0.365119 255 255 255
-0.032459 -0.062589 0.364221 255 255 255
-0.031747 -0.062589 0.360900 255 255 255
-0.031747 -0.062589 0.364933 255 255 255
-0.031747 -0.058013 0.264221 255 255 255
-0.031747 -0.057589 0.263061 255 255 255
-0.031747 -0.058408 0.269221 255 255 255
-0.031747 -0.057589 0.270040 255 255 255
-0.031747 -0.061877 0.364221 255 255 255
-0.031747 -0.057050 0.264221 255 255 255
-0.036442 -0.052589 0.264221 255 255 255
-0.031747 -0.056577 0.269221 255 255 255
-0.035655 -0.052589 0.269221 255 255 255
-0.032476 -0.052589 0.364221 255 255 255
-0.031747 -0.053318 0.364221 255 255 255
-0.031747 -0.052589 0.360808 255 255 255
-0.031747 -0.052589 0.364950 255 255 255
-0.031747 -0.047589 0.362144 255 255 255
-0.031747 -0.047589 0.364628 255 255 255
-0.031747 -0.042589 0.363499 255 255 255
-0.031747 -0.043452 0.369221 255 255 255
-0.031747 -0.042589 0.370084 255 255 255
-0.031747 -0.037589 0.360488 255 255 255
-0.031747 -0.037589 0.365008 255 255 255
-0.031747 -0.041727 0.369221 255 255 255
-0.027324 -0.072589 0.364221 255 255 255
-0.026747 -0.072589 0.361612 255 255 255
-0.026747 -0.067589 0.360582 255 255 255
-0.026747 -0.072589 0.364798 255 255 255
-0.026747 -0.067589 0.364819 255 255 255
-0.028123 -0.062589 0.359221 255 255 255
-0.026747 -0.064518 0.359221 255 255 255
-0.026747 -0.062589 0.358583 255 255 255
-0.026747 -0.062589 0.359376 255 255 255
-0.026747 -0.066992 0.364221 255 255 255
-0.031035 -0.062589 0.364221 255 255 255
-0.026747 -0.058177 0.264221 255 255 255
-0.026747 -0.057589 0.263064 255 255 255
-0.026747 -0.058504 0.269221 255 255 255
-0.026747 -0.057589 0.270136 255 255 255
-0.026747 -0.062435 0.359221 255 255 255
-0.027318 -0.052589 0.264221 255 255 255
-0.026747 -0.052589 0.262474 255 255 255
-0.027557 -0.052589 0.269221 255 255 255
-0.026747 -0.052589 0.269870 255 255 255
-0.031018 -0.052589 0.364221 255 255 255
-0.026747 -0.052138 0.264221 255 255 255
-0.026747 -0.051940 0.269221 255 255 255
-0.026747 -0.047906 0.364221 255 255 255
-0.026747 -0.047589 0.362870 255 255 255
-0.026747 -0.048445 0.369221 255 255 255
-0.027603 -0.047589 0.369221 255 255 255
-0.026747 -0.047589 0.370077 255 255 255
-0.026747 -0.045195 0.364221 255 255 255
-0.030266 -0.042589 0.364221 255 255 255
-0.026747 -0.042589 0.366602 255 255 255
-0.026747 -0.042589 0.369596 255 255 255
-0.030960 -0.037589 0.364221 255 255 255
-0.026747 -0.042215 0.369221 255 255 255
-0.026170 -0.072589 0.364221 255 255 255
-0.026149 -0.067589 0.364221 255 255 255
-0.026592 -0.062589 0.359221 255 255 255
-0.026473 -0.057589 0.264221 255 255 255
-0.025832 -0.057589 0.269221 255 255 255
-0.023374 -0.052589 0.264221 255 255 255
-0.021747 -0.052589 0.264818 255 255 255
-0.021747 -0.053492 0.269221 255 255 255
-0.021747 -0.052589 0.270124 255 255 255
-0.021747 -0.047589 0.259578 255 255 255
-0.022791 -0.047589 0.264221 255 255 255
-0.021747 -0.051821 0.264221 255 255 255
-0.023550 -0.051903 0.265159 255 255 255
-0.021747 -0.051687 0.269221 255 255 255
-0.021747 -0.047589 0.264927 255 255 255
-0.026430 -0.047589 0.364221 255 255 255
-0.025891 -0.047589 0.369221 255 255 255
-0.021747 -0.046883 0.264221 255 255 255
-0.021747 -0.042589 0.363884 255 255 255
-0.022678 -0.042589 0.364221 255 255 255
-0.021747 -0.042672 0.364221 255 255 255
-0.021747 -0.042589 0.364304 255 255 255
-0.026372 -0.042589 0.369221 255 255 255
-0.021747 -0.042507 0.364221 255 255 255
-0.020844 -0.052589 0.269221 255 255 255
-0.021041 -0.047589 0.264221 255 255 255
-0.021191 -0.042589 0.364221 255 255 255
-0.016747 -0.043106 0.369221 255 255 255
-0.016747 -0.042589 0.366915 255 255 255
-0.017264 -0.042589 0.369221 255 255 255
-0.016747 -0.042589 0.369738 255 255 255
-0.016747 -0.042072 0.369221 255 255 255
-0.016230 -0.042589 0.369221 255 255 255
0.022557 -0.052589 0.279221 255 255 255
0.023253 -0.053286 0.279221 255 255 255
0.023253 -0.052589 0.275986 255 255 255
0.023253 -0.052589 0.279918 255 255 255
0.023253 -0.049235 0.279221 255 255 255
0.023253 -0.047589 0.280809 255 255 255
0.022525 -0.047589 0.284221 255 255 255
0.023253 -0.048318 0.284221 255 255 255
0.023253 -0.047589 0.284950 255 255 255
0.023253 -0.046861 0.284221 255 255 255
0.022597 -0.042589 0.354221 255 255 255
0.023253 -0.043246 0.354221 255 255 255
0.023253 -0.042589 0.351199 255 255 255
0.023253 -0.042589 0.354878 255 255 255
0.023253 -0.041933 0.354221 255 255 255
0.027494 -0.067589 0.284221 255 255 255
0.027809 -0.072589 0.284221 255 255 255
0.028253 -0.072589 0.282271 255 255 255
0.028253 -0.067589 0.280642 255 255 255
0.028253 -0.067589 0.284980 255 255 255
0.028253 -0.072589 0.284666 255 255 255
0.028059 -0.062589 0.284221 255 255 255
0.028253 -0.062589 0.283411 255 255 255
0.028253 -0.062589 0.284416 255 255 255
0.028013 -0.057589 0.284221 255 255 255
0.028253 -0.057589 0.283213 255 255 255
0.028253 -0.057589 0.284461 255 255 255
0.026518 -0.052589 0.279221 255 255 255
0.028253 -0.052589 0.282061 255 255 255
0.027946 -0.052589 0.284221 255 255 255
0.028253 -0.053325 0.289221 255 255 255
0.027518 -0.052589 0.289221 255 255 255
0.028253 -0.052589 0.289957 255 255 255
0.028253 -0.051481 0.284221 255 255 255
0.025385 -0.047589 0.284221 255 255 255
0.028253 -0.051854 0.289221 255 255 255
0.027919 -0.047589 0.349221 255 255 255
0.028253 -0.047923 0.349221 255 255 255
0.028253 -0.047589 0.347790 255 255 255
0.028253 -0.047589 0.349555 255 255 255
0.027491 -0.042589 0.349221 255 255 255
0.028253 -0.042589 0.348866 255 255 255
0.023910 -0.042589 0.354221 255 255 255
0.028253 -0.042589 0.349309 255 255 255
0.028253 -0.042502 0.349221 255 255 255
0.033253 -0.071694 0.284221 255 255 255
0.029507 -0.067589 0.284221 255 255 255
0.033253 -0.072589 0.281888 255 255 255
0.033253 -0.072589 0.284744 255 255 255
0.032612 -0.067589 0.349221 255 255 255
0.033253 -0.068231 0.349221 255 255 255
0.033253 -0.067589 0.346276 255 255 255
0.033253 -0.067589 0.349863 255 255 255
0.028448 -0.062589 0.284221 255 255 255
0.032465 -0.062589 0.349221 255 255 255
0.033253 -0.062589 0.344281 255 255 255
0.033253 -0.062589 0.350010 255 255 255
0.029586 -0.057589 0.284221 255 255 255
0.032608 -0.057589 0.349221 255 255 255
0.033253 -0.057589 0.346255 255 255 255
0.033253 -0.057589 0.349867 255 255 255
0.028872 -0.052589 0.284221 255 255 255
0.028989 -0.052589 0.289221 255 255 255
0.032592 -0.052589 0.349221 255 255 255
0.033253 -0.052589 0.346174 255 255 255
0.033253 -0.052589 0.349883 255 255 255
0.033253 -0.047589 0.349125 255 255 255
0.032441 -0.047589 0.354221 255 255 255
0.033253 -0.048402 0.354221 255 255 255
0.033253 -0.047589 0.355034 255 255 255
0.033253 -0.042589 0.349159 255 255 255
0.032809 -0.042589 0.354221 255 255 255
0.033253 -0.042589 0.354666 255 255 255
0.032527 -0.037589 0.349221 255 255 255
0.033253 -0.037589 0.345820 255 255 255
0.033253 -0.037589 0.349948 255 255 255
0.033253 -0.042145 0.354221 255 255 255
0.033776 -0.072589 0.284221 255 255 255
0.038253 -0.068192 0.349221 255 255 255
0.038253 -0.067589 0.346481 255 255 255
0.038253 -0.067589 0.349824 255 255 255
0.038253 -0.063479 0.349221 255 255 255
0.037570 -0.062589 0.349221 255 255 255
0.038253 -0.062589 0.349814 255 255 255
0.037351 -0.062589 0.354221 255 255 255
0.038253 -0.063492 0.354221 255 255 255
0.038253 -0.062589 0.355124 255 255 255
0.036989 -0.057589 0.344221 255 255 255
0.038253 -0.060040 0.344221 255 255 255
0.038253 -0.057589 0.343533 255 255 255
0.038253 -0.057589 0.344388 255 255 255
0.033899 -0.057589 0.349221 255 255 255
0.038253 -0.061687 0.354221 255 255 255
0.038253 -0.056353 0.344221 255 255 255
0.038253 -0.052589 0.347234 255 255 255
0.038253 -0.052913 0.349221 255 255 255
0.038253 -0.052589 0.349545 255 255 255
0.038253 -0.047589 0.346675 255 255 255
0.034066 -0.047589 0.354221 255 255 255
0.038253 -0.047589 0.349574 255 255 255
0.038253 -0.042589 0.347579 255 255 255
0.038253 -0.043307 0.354221 255 255 255
0.038253 -0.042589 0.354939 255 255 255
0.038253 -0.037589 0.346532 255 255 255
0.038253 -0.037589 0.349814 255 255 255
0.038253 -0.041872 0.354221 255 255 255
0.038856 -0.067589 0.349221 255 255 255
0.039156 -0.062589 0.354221 255 255 255
0.038420 -0.057589 0.344221 255 255 255
0.038577 -0.052589 0.349221 255 255 255
0.043253 -0.048230 0.349221 255 255 255
0.043253 -0.047589 0.346283 255 255 255
0.043253 -0.047589 0.349862 255 255 255
0.042394 -0.042589 0.344221 255 255 255
0.043253 -0.043852 0.344221 255 255 255
0.043253 -0.042589 0.343525 255 255 255
0.038971 -0.042589 0.354221 255 255 255
0.043253 -0.042589 0.350198 255 255 255
0.043253 -0.042421 0.344221 255 255 255
0.043253 -0.041613 0.349221 255 255 255
0.038846 -0.037589 0.349221 255 255 255
0.043894 -0.047589 0.349221 255 255 255
0.048253 -0.042973 0.344221 255 255 255
0.048253 -0.042589 0.342559 255 255 255
0.044230 -0.042589 0.349221 255 255 255
0.048253 -0.042589 0.344605 255 255 255
0.048253 -0.042206 0.344221 255 255 255
0.053253 -0.043370 0.344221 255 255 255
0.053253 -0.042589 0.340523 255 255 255
0.053253 -0.042589 0.345002 255 255 255
0.053253 -0.041809 0.344221 255 255 255
0.058205 -0.042589 0.284221 255 255 255
0.058253 -0.042637 0.284221 255 255 255
0.058253 -0.042589 0.284028 255 255 255
0.058253 -0.042589 0.284269 255 255 255
0.054034 -0.042589 0.344221 255 255 255
0.058253 -0.042542 0.284221 255 255 255
